ply
format ascii 1.0
comment made by CVE
comment this file is a cube vertices
element vertex 678
property float32 x
property float32 y
property float32 z
property uint8 red
property uint8 green
property uint8 blue
end_header
-2.623506087971528 0.017343808695378302 1.2052482484769442 159 137 121
-2.598096100025201 0.07286429140991323 1.3262334642338007 174 142 128
-2.5323937306944995 0.19292702926273544 1.61020991589338 168 140 124
-1.8307993758917702 -2.016444965415983 -3.1840385880515734 33 48 37
-2.4775085923248996 0.34682839556713846 1.825089339292465 113 72 63
-2.4821600425959236 0.3518640036687649 1.8107833208680728 105 72 66
-2.4910590577096037 0.3408011106014724 1.758640829384502 148 122 107
-2.617959443454061 0.05767285161595429 1.002059378833708 41 46 44
-2.481802411778999 0.45641645484889576 1.7721222258337455 131 107 96
-2.498569238924893 0.43725543348258133 1.6968104346561594 153 137 122
-2.476694525369547 0.47299408632713297 1.7872422432533004 153 130 112
-2.5624769117929094 0.3456195908969726 1.4034696608983839 148 131 115
-2.518948900572834 0.4329595871361887 1.587270404341771 122 93 87
-2.516573074827697 0.44144902519441864 1.5933470551544635 161 144 124
-2.476678620069828 0.5111754660246105 1.7803290587400749 105 79 74
-2.4796005893089648 0.5138433898058478 1.7730356698320846 140 123 107
-2.477063458486314 0.5224462911076349 1.7784380980583225 104 77 74
-2.5297124306870646 0.44727545731018653 1.5358930023953876 155 133 120
-3.0044809969005866 0.44338481369706234 1.4513875562688794 172 181 187
-2.537505536148737 0.5032275901187305 1.512065794770054 129 110 94
-2.5220546196717093 0.5597325718435465 1.568642421618364 110 110 102
-2.529923557255642 0.5478697375593711 1.5295516271801346 108 109 104
-2.5318974190209125 0.5462656371747647 1.5206624725986746 83 48 47
-2.496102550195208 0.6061795562233174 1.6815252121583166 75 54 50
-2.5120728593347774 0.5938724652716446 1.6149577851801908 85 44 45
-3.217119880957798 0.17697558789705087 -0.012475829546567828 14 20 18
-2.522414568932884 0.6127623406831736 1.5412995335010913 132 120 105
-2.5126613519504075 0.6357849318521529 1.6026123726175445 103 79 63
-2.4981876156453033 0.6835075963701487 1.651736995939913 139 133 117
-2.5070298440449283 0.677237521911887 1.600287205616211 129 115 103
-3.058059664261923 0.7241974218804605 1.6551699507862345 93 98 103
-2.5303680900434875 -0.7294047019074577 2.2551204543729653 105 103 106
-2.485751957802775 -0.6965958936986106 2.184414789312227 120 123 116
-2.528916778212568 -0.7304928239354932 2.035309268596312 61 62 57
-2.528916778212568 -0.7304928239354932 2.035309268596312 61 62 57
-2.5480238559253015 -0.7548694169439153 1.9511820634696468 63 60 53
-2.506944497663068 -0.6616546275389587 2.0367956266325944 159 142 137
-2.5117449376644245 -0.6729806914151112 2.019546524794626 160 142 122
-2.6989786782768106 -0.93819266821383 1.4885155120663875 176 174 159
-2.5043263329240943 -0.5817331925084424 2.025277010222011 165 149 135
-2.7627611308765014 -1.3147702552536797 0.9986933049565094 114 116 113
-2.6408435681738833 -0.8873197693255329 1.510201713360756 67 61 58
-2.499380827439073 -0.47758568219535685 2.007354970726673 176 157 147
-2.569423052974334 -0.6299872566273278 1.6669198052244427 198 194 185
-2.208836084413787 -2.25599893437229 -2.9482171217212625 33 49 37
-2.52681202548565 -0.4741389064568755 1.8614978105829874 182 160 144
-2.6384758947650395 -0.6209925471927132 1.372959281833181 154 132 118
-1.1019818458830528 -0.5873332965236033 2.130263370963928 155 155 153
-2.5415704943341018 -0.33163780225003875 1.656932213199362 138 141 145
-1.5560088211661713 0.021731251679522886 1.7333801865399059 175 146 131
-2.7772125846134603 -0.842208253341362 0.7021363583185722 178 161 145
-1.3309040709845326 0.0671275571545181 1.6668453556286298 129 111 111
-2.825153715400841 -0.943002134690288 0.48814912143049816 170 162 142
-1.1368606554083984 -0.6269089126065729 1.8780536181295444 71 62 48
-2.646602305592614 -0.3923199833428018 1.2390430089763942 197 185 169
-1.3941817603651205 0.07235776208650031 1.6816626995936637 148 124 119
-0.8420713123924379 -4.147012187348939 -4.675093106861727 98 126 103
-2.4930884427837308 0.38988339379656967 1.7804716308816262 70 87 94
-1.0836384064488147 -4.136692678698813 -5.021821281655839 91 100 96
-2.021426658385891 -2.219841609477881 -2.9772988503256568 60 81 44
-1.906720386876748 -2.2555387311575736 -3.0685447166475828 94 117 71
-2.4733175807527332 0.3909131909783523 1.8186995635614234 98 61 55
-2.475464768710443 0.27779097825057164 1.8534130379355398 97 54 52
-2.4883586752309164 0.6127489264790531 1.7248118291720698 100 91 79
-1.7195056490673841 -2.0665738737838146 -3.1453305269612075 93 116 67
-2.5308936517900458 0.4218413306375182 1.5149542755876242 152 134 120
-2.5568167429347404 0.4781634226667943 1.4178122773641881 130 123 113
-2.482930388970025 0.6081576300389017 1.759835268191621 100 74 71
-2.53044750768362 0.5403659321321711 1.530724892228025 92 54 53
-2.4890418184629812 0.6224563916832431 1.722206643431725 84 72 60
-2.5090869653389887 0.6095919614206246 1.6201061621187085 115 98 73
-3.1337072101373233 0.6209188391460693 1.3207299565144313 117 87 82
-2.689848655067841 -1.438284148780522 1.394663777930082 124 121 116
-2.587499923428286 -0.7843583358427193 2.0034299074478277 168 170 167
-2.4781393931426514 -0.6802039998240054 2.1617516433149095 112 106 103
-2.6876503063426025 -1.2887744008905764 1.2994053340797316 135 123 107
-2.6394321933620923 -0.8532391121870088 1.769309761560674 168 165 153
-2.517471608366294 -0.6561303752459274 1.9678180818459101 168 150 137
-2.4984989617486186 -0.5454308306654835 2.083419379198259 90 78 77
-2.4997270638559304 -0.5433529702524689 2.047030629836458 164 148 135
-2.4848256142123533 -0.4531348033455267 2.0613725265634804 167 149 137
-2.5237798560701465 -0.5338891235378788 1.8940478231204836 137 116 114
-2.5158091977617616 -0.4922611941034589 1.9325827528475599 187 168 154
-2.542222149305269 -0.4886409422232409 1.7907983247945334 154 143 143
-2.7933399259787186 -1.0703826132437817 0.6915272634402567 180 168 157
-1.1937372053556434 -0.7953929853353658 1.9935962391729072 140 136 126
-2.6826325070300405 -0.6707684075376312 1.1383789378483349 191 172 157
-2.5076876118481883 -0.19591416242194604 1.8756261049787752 160 133 114
-2.5076876118481883 -0.19591416242194604 1.8756261049787752 160 133 114
-2.4809859918359 -0.0707630046584103 1.9622962802771777 87 69 69
-2.531000121335383 -0.18210392706122963 1.7526586448413741 174 146 132
-0.8612366600526521 -4.0209214310815575 -4.535890484986393 236 255 253
-0.9564085337113353 -3.8449019407940885 -4.722625422072811 42 63 57
-0.7715938878201378 -3.942900731216946 -5.090411419258785 51 62 58
-2.731373357148517 -0.3481616049340995 0.7730030259289775 163 141 130
-2.7599634328672735 -0.2557065898581675 0.6122444537119751 149 128 124
-2.4796339029514547 0.2682466670429742 1.844046965838044 146 118 106
-2.4831845934704906 0.31320199321470277 1.8177212088125205 126 97 83
-2.738751414128777 -0.19115633994235243 0.5490197895114252 48 46 42
-2.4760098841200606 0.3322238829625819 1.8370480879700009 94 56 55
-2.5300506885187697 0.253959636564894 1.4436448551366212 96 101 97
-3.140656934092716 -0.16755969511601396 0.0987003805641808 25 32 24
-2.6435534681620347 0.25802757519513425 1.3303908030976852 43 40 22
-2.7992631334489455 -0.07082832760180396 0.34001641114346676 141 132 118
-2.5428768639879924 0.36974039005752124 1.5026874184404706 124 104 93
-2.61694757641118 0.30968293072367187 1.3106723893817935 25 31 19
-2.5401467563496203 0.3809033197945277 1.49829273672703 127 106 93
-2.492175537708877 0.46007694814454536 1.718374379682796 139 113 100
-2.529181906656419 0.41018509757303173 1.5391004863556053 117 94 84
-2.5229798171003797 0.4350032192205389 1.5628243851329449 157 140 125
-3.1925504669856464 0.15819002805194204 0.5923829533615654 6 16 3
-2.2221184255579773 0.6500773615926815 2.1170385491698553 17 30 19
-2.2370978244544144 0.6526237310747928 2.094852226023205 43 74 32
-2.504829083299773 0.5982341737596528 1.6437984292954877 98 72 68
-2.504429136566276 0.5981622660152317 1.643557304917724 98 72 68
-2.533800728611051 0.5926579413711447 1.4983165233383318 91 58 53
-2.504670621917988 0.6496076943148639 1.6261034894285598 132 115 100
-2.1540370669808224 0.7834868908109816 2.0190899802427715 20 25 19
-2.915544466947679 0.6263474881996383 1.487935805524569 15 25 19
-2.9342791039970235 0.648313850185463 1.5366658640200144 23 45 5
-2.976352256428435 0.6650084744955267 1.530348058389857 17 27 16
-2.732178023612378 0.6495074249353777 1.2961251070710842 115 89 84
-2.5027310242974026 -0.7038363541510777 2.138884392049411 43 43 46
-2.488083724824125 -0.32061736375141286 2.0272612171678186 156 139 129
-1.1260593614296135 -0.7191148718140504 2.0719951127596836 106 100 100
-2.7008680744854496 -0.6426967683323798 1.074976604183482 173 150 142
-2.4833991428893394 -0.07224608808520196 1.9404698101986213 149 123 108
-2.7831093683682124 -0.7218774995980993 0.6569998304666542 185 165 152
-2.686746245280282 -0.43968860761735984 1.053286012544211 183 163 151
-1.191714067143099 -4.147099333668624 -4.824689370418894 241 255 254
-2.4783635223500258 0.10165292124026035 1.9085954832175027 93 63 61
-3.1517001906775013 0.4293776498552033 0.8444771479973986 10 10 10
-3.1219696094539815 0.6426020052144404 1.3936690396061864 115 88 85
-2.539523861455379 -0.4600102174015209 1.8164809113378786 176 154 143
-2.573308104318861 -0.4272587620224205 1.616991703163086 121 96 86
-2.6533054651180525 -0.23947852380390683 1.1865402776039018 183 179 173
-2.4818697592859573 0.16497546291899326 1.8686237098620382 149 121 109
-2.4806631262403918 0.31830489402844264 1.825906432003899 130 103 86
-2.56953288391397 0.41916624672014646 1.3650229541847925 57 53 42
-2.486320061805568 0.5677362229426879 1.7488705112912035 97 76 71
-2.5146555689427217 0.5679317902967554 1.6090869606173799 87 60 49
-2.486098345494951 0.704409436479579 1.70223697788283 107 89 73
-2.6804978353149327 -1.0514596104073903 1.378693270991244 50 43 40
-2.5473628048095063 -0.5604020826071971 1.6683076476947118 130 146 157
-2.5584368151775756 -0.4167730985850831 1.6765495299869322 120 98 89
-2.49377041450176 -0.21479165724316573 1.9766198693640293 56 54 54
-2.747043181135232 -0.6370483692723335 0.8130127051763356 163 155 144
-2.5594228897893454 -0.0037950787555234514 1.5369891023046138 159 126 118
-2.750686277975333 -0.4299096372065812 0.6142807607767472 168 151 131
-2.538450943232481 0.07108399696000843 1.58258377861742 171 163 153
-2.5423202192404517 0.14389433852313147 1.511473265796106 108 118 112
-2.750598265634007 0.18441918696346493 1.3159633035369913 155 138 131
-2.5202515307018225 0.2979914532495493 1.6318431232669 92 69 62
-2.478239644691887 0.4884040046625553 1.766171151842347 118 102 90
-2.490913200709434 0.4943147461272208 1.7473035404603965 42 43 38
-2.490913200709434 0.4943147461272208 1.7473035404603965 42 43 38
-2.2108137931025285 0.6288147099194827 2.101521678447064 24 32 11
-2.526288871720123 -0.7442774969732444 2.2621841762356976 146 151 147
-2.611409932577702 -0.648078166721485 1.4952236086347663 195 176 159
-2.6122233816267757 -0.31141041020333704 1.4166055490023624 169 149 134
-2.558032950828756 -0.1499274065861437 1.5234873981074275 176 159 144
-2.491733657501155 0.12501328661944874 1.8632531242519563 57 58 57
-2.492409665331251 0.12688453086220994 1.8626525664931088 57 58 57
-2.7467719193268576 -0.43402362148827395 0.6106467401372397 169 151 129
-2.491469203750629 0.3698867626031165 1.786981429891684 46 41 38
-2.1846638088590513 0.6245295894674989 2.0530453332292673 51 60 40
-2.5127254631505145 0.598546551552045 1.5976734105865718 70 49 50
-2.5667987450021656 -0.7762185027028685 2.2269287450458495 255 255 255
-2.8724178941197573 -1.1506588002202007 0.49222809277584384 255 255 255
-2.531041901938591 0.024400843152103713 1.579821843106574 142 121 111
-2.497205526742176 0.5405343676969413 1.7360507838603736 44 45 42
-2.502119474553801 0.5301146274232476 1.6412043900814433 110 69 68
-2.4937190712061286 -0.5630737597336699 2.08664811455416 92 80 82
-2.6421348082316074 -0.23246463549623397 0.47164052273779805 60 62 57
-2.50356931431807 0.5482578242884979 1.6872114122678195 102 73 65
-2.9380230507984106 -1.3457400057562996 0.6090497157752719 0 0 0
-2.692618467113813 -0.5853333555850099 0.9048149614068612 99 74 78
-2.5120666799258893 0.6585117957461186 1.6393985761377041 118 101 84
-1.257343368814662 -0.7658348462211344 1.9628169988819606 55 51 50
-2.5558247141224877 -0.4298937514258094 1.6528598003896473 117 90 94
-2.494893721209952 0.5860016740642098 1.72132661763695 42 41 37
-2.6189777258976226 -0.8526219710723174 1.62356873869946 39 35 33
-2.501261204782201 -0.6357828015332516 2.061657963735978 167 155 143
-2.5991433417469385 0.14535264560425482 1.2952849848817354 161 141 124
-2.5273792754553277 0.014342977215774473 1.6980761323721747 191 166 152
-2.512766698778372 -0.43816171685081273 1.920905214430694 173 153 144
-2.63677062463969 -0.26673228142659966 1.2474865577374892 105 88 77
-3.1101881869956567 0.5952801611997706 1.3129933833641174 19 31 13
-2.538799082445397 -0.5848954957866008 1.969049449396268 176 153 141
-0.9103238525221593 -1.9359231441150995 0.08923872117994575 254 255 253
-2.69887164477372 -0.8291195507835871 1.10903813410868 188 175 159
-2.230300319751402 -0.9842847308533292 0.35721193020806313 147 148 151
-2.8387552264464926 -0.6235027996178025 0.3952076809904506 0 0 0
-2.747422159949355 -0.39225683697474595 0.24661000113867262 166 149 133
2.927114558159279 0.4171338259626077 9.102930704097773 44 70 63
7.967077935531834 -2.277189882337497 -0.7662480145933769 254 255 254
2.34305711157912 0.4954002379960307 6.916685894814266 91 113 87
2.388891705255016 0.5729197246406618 6.818928440574904 31 54 37
3.7311939902657003 -0.9459480562889419 -0.7533450423076911 193 198 198
3.688665949772805 -0.9423977573611074 -0.7498775859296996 193 198 198
-3.0614167824409866 -0.06338564852140505 -0.18006022128035 14 31 20
-2.0379179244436987 -0.12554081081528964 -0.38435664821411814 18 23 19
-2.1029594704460433 -0.10494426172299423 -0.3825218625599516 7 19 15
-3.0121661948837484 0.21403972417465778 0.6486197391529829 31 53 30
-3.2158000877398027 0.08934993799593223 0.03708172554148465 9 13 13
-3.1160274947152122 0.09527018256489314 -0.23234740169636864 16 17 15
-3.2187267844170235 0.33279145598290744 0.4471933585744565 38 52 27
-3.382741884671979 0.27920910911025715 0.25562237806826604 118 100 102
-3.42640575385341 0.198112957684891 0.011667974381545163 116 120 121
-2.6900038803826476 -0.8633341131434433 0.37248691589897026 196 187 177
0.9490327445287217 -1.435608897666963 -0.3077044565840434 89 89 86
-2.6617976137757022 -0.4278325025150503 0.23629243848963535 195 177 159
2.0226489525897846 0.5675778555716157 8.142540622255403 78 100 79
2.7341961545028695 0.3527540547913748 7.378411336079005 39 59 49
-2.6258787954796667 -0.11812314162919095 1.2520652638934646 184 163 149
1.8238563291628445 0.7237398909405574 7.693464787217859 61 88 57
2.0915337506086256 0.6730498829561029 7.419719064891372 24 36 34
1.3549782433751358 0.6835966992830697 5.752077887472519 23 34 30
-2.6164840702806518 0.022804769885309377 1.0521772764728043 79 87 86
-2.627122743650203 0.12183889148258148 1.1718416806625478 168 149 134
-2.627122743650203 0.12183889148258148 1.1718416806625478 168 149 134
-2.6537473262127835 0.08226405360081551 0.9664496018596923 70 72 71
-2.647253986380103 0.11494930232018456 0.9602614097131066 49 53 50
-1.9872140220069803 -0.23790542795650985 -0.33165457257674275 90 110 98
-1.4216005757016748 -0.19698610963987653 -0.5658427935841563 107 123 55
-2.903572093172016 -1.2229856478916532 0.602683128574708 79 81 80
-2.0397636531968164 -1.1956999943195206 0.33316511362739704 177 177 175
-2.342302369828984 -0.9636786656670309 0.3427711759586231 190 205 214
-2.714400082071616 -0.5878983009553516 0.7845113954104763 0 0 0
3.323067395951343 0.2712987249703047 9.428264365491591 56 84 78
-2.634850901309961 -0.18918654861319972 1.212586492963553 0 0 0
-2.589028166139074 -0.09291178699626343 1.4297177490529158 157 135 122
2.6392286461305607 0.47980866007635425 7.307595368411457 22 34 32
2.6392286461305607 0.47980866007635425 7.307595368411457 22 34 32
1.3894676909698804 0.9988319869537573 7.194245079449947 48 66 46
-2.6180796093920833 0.2095683595558754 1.1336435908212148 140 123 105
-2.4408027303171793 -0.11202872840459356 -0.2243018496985296 71 87 71
-3.187614720421448 0.09015588612942624 0.2324759814288246 15 23 16
-2.256582355086345 -0.061291968730644804 -0.3535191674691806 13 26 19
-2.5471977664885204 -0.003949075205235241 -0.2889963835406079 29 33 29
-3.2024079224231548 0.10864093580950233 -0.04673790860997581 7 11 10
-3.2006481612688606 0.33973454418360305 0.542545420754308 67 86 39
-3.199382804999971 0.4036521117018489 0.7061194641879444 18 29 19
-2.9904641028358214 0.1688735784813372 -0.24826982074339532 179 187 190
-2.806262598373351 -0.6379445647658493 0.48228220048597364 0 0 0
-2.621258209290905 -0.3734487721686073 1.3617809133482812 182 162 146
-0.2509622751333626 -1.1630887618449812 -0.21158400732640517 171 160 158
-1.3102728900547522 -0.8551121428704588 -0.08412055155231156 157 148 136
-2.6868824874759993 -0.07786185878119688 0.9336996598359556 0 0 0
-3.1411018420214187 0.06346500854274674 -0.1903758950294873 6 14 9
-2.7108107930841503 -1.4992178357469892 1.5082218358619703 0 0 0
-1.5341291099013932 -1.1689134374907002 0.2128891781764343 0 0 0
-1.9772804145619292 -0.8944441341514233 0.23091345956889545 195 178 161
-2.7117873642644788 -0.4666172502871749 0.9329773094726797 173 144 132
3.386201022041836 0.24998902298094108 9.904748212931931 56 75 72
-2.62351235657112 -0.2539403687708191 1.1915098626875773 164 153 131
-1.9799019554961106 -0.5722220266074409 0.1476204948656364 179 163 143
-1.7957245936702648 -0.3498740049961237 0.024898280404837096 143 142 124
-2.9994091753613192 -0.15186094638481445 0.2365471535650842 20 35 16
3.814128837540785 -2.0405572006350408 -1.2402802947179232 113 115 102
-1.850251462486015 -0.2163601589036272 -0.11439033795389071 29 34 28
-2.5243779856720905 -0.2007889339739658 1.6139866787032475 0 0 0
-2.5611276564797376 -0.2764074102303567 1.6219948470131547 178 190 197
-2.5881232251907913 -0.1735656606987018 1.463866004600829 163 144 128
-2.7031663322507256 -1.383961521635489 1.635979744761398 185 193 190
-2.5891518144062857 -0.32122426932043147 1.5204897597573934 159 136 120
-2.6796437349184767 -0.6901941944803256 0.31858858748863844 141 137 126
-2.743494094844179 0.15525879358873373 1.141172472021665 33 33 27
-2.481997429965928 0.01918132576173472 -0.3303633396306469 24 32 27
-2.531587211077054 0.2062215093500028 1.5461238960292465 161 152 141
-2.5509450162872396 -0.2598659940937932 1.7215696480282177 143 120 110
-2.6711519262115333 -0.45883228043268165 1.123987333691263 168 178 180
-2.5564861400530092 -0.08365542721900777 1.161901844151693 176 171 166
-1.5944550099585801 -1.0458642181869373 0.19657563368454226 173 156 148
-3.5450579332653627 0.14020962747958549 -0.17026912195194874 136 117 120
-0.4763675476855056 -0.6437516819429392 -0.33980330555074667 181 162 149
-1.30556174573254 -0.4520466462859457 -0.17988193250515602 145 129 130
-2.8114738769025114 0.5973139808855222 1.4892353081703198 18 29 23
-2.480188217892052 -0.6903871655535753 2.1757170793509135 72 65 64
-2.5451971354656235 -0.7502441497543935 1.965639020729243 64 55 48
-2.402913498356368 -1.1733598137908756 1.4048297104854095 66 57 48
-2.572426061912989 -0.7475750261709455 1.7024332143751912 186 176 162
-1.9657814189788507 -0.7194800135620834 2.0693500046375966 88 70 60
-2.6575856066099544 -0.9096775011447163 1.3566450451848755 131 124 114
-2.4892654315062503 -0.35550104853260334 2.028888593168724 161 138 131
-2.5064298868598294 -0.40314194688915667 1.9456095202191848 166 145 135
-2.1451054133186522 -0.47430561987826336 2.019936225799753 211 197 188
-2.7266814373449093 -1.0140209803036955 1.0612569233022626 100 101 96
-1.2219118191702325 -0.8300679843546198 2.0196600151824673 255 255 251
-2.5243377967110048 -0.374668528049185 1.85294834589361 174 154 144
-1.2111179604602575 -0.8055962697683428 1.9906728695669142 89 86 82
-2.709053667328763 -0.8743335730871813 1.0799411247113821 195 183 170
-2.616694936344791 -0.5634058585471283 1.4501592151158609 196 174 162
-2.482550741961362 -0.18111446285349517 1.998915881698292 82 73 74
-1.080372489071976 -0.586319749135479 2.15674373039686 162 161 156
-2.1573818235502142 -0.26846713655252963 1.9628835319819178 207 177 170
-1.1494466274486286 -0.6962911272941626 1.8879071502677454 130 132 129
-1.1502986127493282 -0.6643504834219288 1.8790780815638046 139 140 135
-2.4818910079551646 -0.11444355778478028 1.9684457167997107 174 146 140
-2.4818910079551646 -0.11444355778478028 1.9684457167997107 174 146 140
-2.5440704863339914 -0.35629935497951915 1.5910094570024558 140 137 146
-1.1366489356259766 -0.600216316326046 1.8560074073177846 133 132 130
-2.4797041041221015 -0.05412281671588055 1.9613106629682568 118 81 75
-1.5105348777264798 -0.37664653832007805 1.8468467632778502 190 168 157
-1.4675017259750907 -4.564925441503722 -5.190351394628083 102 120 122
-1.4675017259750907 -4.564925441503722 -5.190351394628083 102 120 122
-1.4186680221627195 -4.498258237914379 -5.109205369548473 239 255 252
-2.2367607726877825 -3.421768558386411 -3.708800045829994 242 255 252
-1.3718877445480768 -4.486954019467861 -5.107444627203837 115 138 136
-1.3718877445480768 -4.486954019467861 -5.107444627203837 115 138 136
-2.2117309729223646 -3.3795739106354596 -3.692364676913663 95 113 87
-2.3425781124436655 0.05098897759945972 1.9029154314551062 205 179 161
-2.2155868085531947 0.015175129103900613 1.8840636925123224 176 154 141
-2.4949798555913136 0.08430746669549212 1.8387135607268512 166 140 129
-2.0067704735593064 -0.011195624767327784 1.8471488322092453 164 152 138
-2.312751585237108 -2.7848219008958637 -3.050754591297362 96 122 77
-1.873955026236445 -0.04728756392693107 1.8272562159976415 203 207 201
-0.7521686082039406 -0.36543756783886133 1.6920345113304118 107 94 83
-2.052657859027222 0.01428534371392551 1.8476358968676985 136 111 106
-2.1245795229119446 0.05430547289588317 1.8485615974270355 187 157 147
-2.0888004229897885 0.06372817913583884 1.8392103898074512 202 176 161
-1.204829712329471 -0.1689303613753296 1.7241235364023175 117 90 79
-2.7348917070373155 -0.3800363409156557 0.7559275663672691 97 73 69
-2.523560629131535 0.09463587312177707 1.6860014604705464 168 145 127
-2.45115175679414 0.19717168136540186 1.881827525259105 161 133 122
-1.6794126110594436 0.017438535130954967 1.7614314541039366 150 122 118
-2.6729307186347526 -0.11548298528853787 1.007735729888846 184 181 179
-0.8051966117504642 -0.02372111513330573 1.5939904888929695 163 151 135
-2.4952819860326616 0.3189960911019951 1.7487402399563257 163 144 119
-1.5845153310644347 0.3792512017437565 1.6291172363614226 189 189 187
-2.1132969359048457 0.46237691767815825 1.7201984804913792 133 111 98
-2.2294471798261344 0.657477617358951 2.1093502731726304 37 62 32
-2.643183257022341 -0.8609857438244776 1.7464807093227963 173 172 161
-2.1153223191248482 -0.7099971289788786 2.100588112134536 85 70 63
-2.407136646055336 -0.5325036078633347 2.095068998104884 201 187 178
-2.038070044577196 -0.7133669681528269 2.0842491772190552 98 83 79
-2.5229533724793485 -0.5347986686132044 1.8939239426465346 146 122 121
-2.534589783662554 -0.5438339565485711 1.8360038554826594 183 168 147
-2.534589783662554 -0.5438339565485711 1.8360038554826594 183 168 147
-2.398898713223889 -0.31301351533053334 2.0254272231774757 206 188 177
-1.5109344692883764 -0.6554121082750397 1.9289320404459414 189 175 163
-2.784458285684887 -0.9375899986291287 0.7105920808877435 144 128 126
-2.8251657168988964 -1.0558063720950897 0.5232891525684069 176 164 152
-1.3299564726089554 -0.5918565630342653 1.8654943522950929 176 163 151
-2.5153694606776376 -0.1923998807678359 1.8356820853527938 177 141 127
-2.683981818159024 -0.636165927538484 1.1348323332104782 185 166 152
-2.8195805657763575 -0.9879443370552214 0.5602197319881937 193 179 169
-2.726875325740411 -0.7188667191954288 0.9674171497566233 146 120 108
-2.539233395794463 -0.2247411039476295 1.7395288894723564 174 150 143
-0.6823245138144701 -0.7033068073789434 1.7891664623743435 60 55 36
-1.544909880625864 -0.3461469825397987 1.8455385361551964 156 135 137
-2.642235465493582 -0.33921277874721095 1.267445001397913 194 174 171
-2.629275828055526 -0.2842343072348759 1.2948778515486026 174 153 134
-2.6034221951187075 -0.20757828957448016 1.3917619683949645 186 163 143
-2.4529633051815942 0.10586003581607577 1.9079123565930303 180 158 148
-2.795892651730231 -0.6124252899423067 0.546628228284281 184 166 155
-2.3295481455171383 -2.8472833615562703 -3.1476578281320253 51 65 52
-1.3449017666115344 -0.20259939767687601 1.752934463066268 181 168 152
-2.2170433334804525 0.0635204185610005 1.8690294127244615 196 172 157
-2.2167999630317827 0.06333878578878126 1.8689476074587474 196 172 157
-2.6945899390188988 -0.32150795651133107 0.9701700910197641 178 156 140
-2.444398456360812 0.15595558965571787 1.8905638752476706 200 174 159
-2.4668642406027996 0.1595941104497264 1.887418197146164 136 103 78
-2.5040870285065746 0.15360761571988032 1.7683693755501138 167 142 122
-1.7780781149083424 0.04818554112134298 1.7735305935107595 149 121 118
-1.774508689968498 0.04616293907576463 1.772331727902711 149 121 118
-2.1248443158457704 0.1377698402146304 1.8235080920611169 166 136 128
-2.6891455298896645 -0.22049665581246597 0.9541016304263177 169 149 133
-2.8229211630317295 -0.4696485424018335 0.3543450383887333 157 141 130
-2.7711415943921596 -0.3348716268619597 0.570390417539243 130 109 106
-1.317807689746702 0.015160217541021091 1.6822574167689888 165 143 130
-1.8447329482751122 0.14560971916346893 1.7613880611249126 198 174 168
-2.636700423706693 -0.023498784512498566 1.1462909753208996 146 136 122
-0.2575888269090118 -0.062394335008906836 1.4936220710155266 170 173 172
-0.49918741329290545 0.07980090617798319 1.5079368352195635 174 170 158
-0.49918741329290545 0.07980090617798319 1.5079368352195635 174 170 158
-2.731555992978994 -0.12166575288133885 0.5759213922134961 80 82 81
-2.7269893298154395 -0.06999086945021893 0.5599533943559183 53 56 54
-2.6577647509448936 0.27006825428965625 1.3272176939949802 156 135 120
-2.6384483803955883 0.28810785449500875 1.3305945322237933 59 56 41
-2.4726736441957424 0.46463117094211365 1.793854581564009 111 72 63
-2.2352601182558156 0.6428801108938866 2.1297387554849454 87 113 79
-2.2113392586165506 0.6489752401667692 2.0393363732675938 40 55 33
-2.493531668763667 0.5514470270764628 1.7440192559582528 46 44 45
-2.490791340279622 -0.6875045543688495 2.141929551221092 117 118 114
-1.9574874985910993 -0.7410730161331297 2.0918564842316303 73 60 52
-2.4802508950919484 -0.28110084192868623 2.0271571997376228 110 76 73
-1.1560260411196437 -0.7281330483341018 2.210475313589408 180 182 182
-2.247391176720466 -0.3550987311866539 2.0076080663164526 211 199 187
-1.1298269059413242 -0.7355184473162514 2.0305405252701787 108 101 93
-1.1448222196382267 -0.7375311254479404 1.9994400410598303 104 94 91
-1.1451658044036621 -0.7557541316841196 1.958226916216881 98 90 82
-2.635472339068638 -0.53465761627084 1.3691344611338168 187 169 154
-2.0408887729406446 -0.3191736252258779 1.9526954244148016 189 171 161
-2.4824396213467033 -0.038223034481499565 1.9400977200614231 156 128 114
-2.4794943181462314 -0.021182386987702286 1.9477127981205324 98 73 74
-2.5857169615376927 -0.24887397649576368 1.5305861921814141 173 150 137
-2.649515699119513 -0.41934592427119277 1.2400798611152848 182 193 191
-2.5921891145141585 -0.26603080577464666 1.4886511590738587 188 162 146
-2.4529998245996056 0.07095631028282529 1.9209767750717486 179 157 138
-2.5175160604941174 0.006186036399764308 1.7442191757874166 182 154 142
-2.6975509730269236 -0.3815232994222162 0.9773791101796891 182 164 158
-2.6412224870792227 -0.055627289680311366 0.9972517274546898 41 43 39
-1.2443866895544569 0.10550937508167496 1.6370056859683997 172 143 137
-1.7175216463752827 0.3837022255861705 1.66285132553168 188 187 178
-3.1374085084100862 0.5816106491671796 1.211158594305199 103 73 77
-2.5058690626308584 -0.5236164654925631 1.9779464886113212 193 171 158
-2.5823075578554326 -0.7157387153559184 1.6510474709180085 197 183 170
-2.6755337957557996 -0.9175983176569673 1.254508036351743 169 172 166
-2.514612333717956 -0.40203474538513867 1.9123718475206943 176 147 139
-2.5427090350215003 -0.3262607815542613 1.6046892323446893 188 198 199
-1.3118182934177793 -0.28879109441007955 1.7610585368901022 167 155 140
-2.749498237113663 -0.5556233655770633 0.6443297884235027 190 181 164
-2.3166422961230833 0.0832420244738338 1.8850037833776578 192 170 156
-2.3166422961230833 0.0832420244738338 1.8850037833776578 192 170 156
-2.6408238693804535 -0.18272432176460499 1.209298470449582 183 163 150
-2.2008263823076066 0.10529958813082818 1.8508305631156319 174 162 157
-2.6308641159310557 -0.02258886367968661 1.0859616406484707 49 54 48
-1.3184856666035398 0.08721519736224188 1.6558205718172665 176 169 166
-2.1744560797918315 0.40618493190466404 1.7404496235749005 194 193 191
-2.503603088466395 0.45258899299202876 1.6639743811753942 171 150 128
-1.96868011473033 0.5129079112579044 1.6817572162651766 136 116 109
-1.6933351984753813 0.4972645711926506 1.6326461089183568 137 123 110
-2.5371435260465978 0.520406876570997 1.514407635291179 94 62 49
-2.4639949115308215 0.6183178395135618 1.758127508538903 145 125 116
-2.5147607103039853 0.5676680895661579 1.6093331340962285 88 58 56
-2.645909957209325 0.6047997003610506 1.0176353537774199 133 92 86
-2.1093894828323387 -0.5734199992521198 2.0421024702962405 212 198 187
-1.0917236269145287 -0.5805028625414037 2.1262061158119803 157 159 156
-1.090650016432999 -0.5030266635196458 2.136116176614212 88 72 66
-1.393237056906939 -0.3945266828489402 1.82898325182759 189 169 162
-2.621903476525487 -0.3394967917048238 1.3546924326369076 185 168 152
-2.480786376519203 0.024743431856119935 1.9103782113627312 144 122 116
-2.648870989179388 -0.368675548826802 1.220509584803144 196 200 201
-2.5132074827047703 0.04967920511316662 1.7612653674902876 180 150 139
-2.4555077881576057 0.18280161760127783 1.8872935581131551 154 127 118
-2.4777248799485543 0.25808945158215885 1.8428608779927813 155 130 123
-2.232119522813338 0.4592999084006172 1.7482946715819978 199 184 165
-2.4853580929146646 0.5956361953949618 1.7548696379793864 68 64 61
-1.9271784242481593 -0.27627746842131157 1.9016400298385758 180 169 167
-2.06650863100745 0.002663323338142097 1.851839438840782 163 148 144
-1.2292055163387579 -0.16663447718560268 1.7263720372742137 113 85 75
-2.796854824657057 -0.37591426777422293 0.4438315353185852 112 81 77
-1.1106712563660706 0.11428033301464094 1.6374420289054605 172 174 171
-1.1990967642846746 0.13474504397592077 1.6275927144988627 70 64 63
-1.9943600625081042 0.48965157110361396 1.6977735399739786 151 134 126
-1.7163973466121987 0.5252245522133637 1.6321124365539517 174 170 160
-1.9699697093718735 0.54097317135486 1.677317678588429 178 178 168
-2.9345543273130525 0.6762611245891429 1.6014019556664842 62 82 25
-2.5625122715526043 -0.3577628153236503 1.6270492629070727 164 155 139
-2.496136531605401 -0.17020514074522128 1.9093565258566916 176 138 125
-2.741330588446954 -0.1623718165088573 0.6063099956407044 59 62 60
-2.7528569231350373 -0.03593916791773013 0.6006220242135432 55 57 54
-1.0232190275449164 -0.6665646805866586 2.1459569936346856 168 168 166
-2.796001221416276 -1.0309757404495439 0.6841998614310051 174 157 147
-2.6589749253468837 -0.40061397996866727 1.1781835074566873 189 193 194
-3.173817148190428 0.45619685144214633 0.9306134479031746 2 22 12
-2.498178249344299 0.02482345600886142 1.7874658431157697 183 154 138
-2.521023170658241 -0.7170116789725717 2.0785115239920073 86 82 80
-2.5193069329330355 -0.6906383058284086 1.7402408720222484 184 207 225
-2.516773622979484 -0.09498370174278128 1.7854560294351325 178 150 136
-2.482234456405988 0.3932958295927163 1.790922524070054 62 69 63
-2.484884615026093 -0.3601784586339381 2.04272350754838 166 144 132
-2.50371682746225 -0.423303644905848 1.962947459749778 185 164 146
-2.7383931160849793 -0.8207373823282095 0.9182952034247475 194 180 167
-2.66072070098139 -0.46317937314182134 1.1985485232122104 171 174 179
-2.5363545787862103 -0.1188396476330651 1.710387136581862 164 135 122
-2.478820320483675 0.063307713920423 1.9226881478847175 105 64 61
-2.4780151904745518 0.13849982293569119 1.895709561353884 160 127 107
-2.731704993523894 -0.38466562268172966 0.817357638120065 163 141 127
-2.50956245850025 0.19602134488395712 1.7229176832229136 177 141 125
-2.483020184781478 0.2552412138064985 1.83414916720716 118 96 78
-2.5894311591427126 0.08600206980499202 1.3573323121400735 168 139 121
-2.784097909274278 -0.26999117896277475 0.4922834325786131 153 132 115
-2.4743166007993933 0.3578010379511931 1.8295184010415428 104 65 57
-2.500992722300737 0.3813046657880696 1.780879332283486 57 55 50
-2.4820244519005765 0.4371098757722056 1.7756192279559002 139 121 111
-2.573315525297892 0.28853161312165077 1.3645551666928106 89 80 78
-2.538659312315621 0.3967650153006874 1.498001526691513 103 71 71
-2.5335635709743562 0.4146730399602475 1.518913753249656 130 99 96
-2.522350520375826 0.46360887699116154 1.5670173621836596 163 143 134
-2.511148910317559 0.4832148392452828 1.6175733968413073 88 79 66
-2.5681842455873785 0.42306133771422305 1.3857012228366448 70 59 49
-2.552481688618778 0.48664495798908614 1.443539584228213 134 128 115
-2.1785427207488888 0.5797999055930534 1.685605094947177 68 39 21
-2.4844776330427245 0.6125143565315914 1.7445929318732207 85 77 75
-2.530190665258106 0.6020745963461831 1.506639349095888 139 125 109
-2.535708531976278 0.5952582495400781 1.482498482536507 131 124 103
-2.644164121282761 -0.898660890556472 1.4440393141599979 94 91 84
-2.5156260961640355 -0.46850662637474155 1.9274279848368883 171 153 139
-2.6579134364690784 -0.9158322905861497 1.3821223648181036 103 99 91
-1.8039676718567506 -0.7351823634459828 2.0353715887715285 86 67 60
-2.553651330957807 -0.4394625300292513 1.7374102501207873 143 134 116
-2.622945248044717 -0.572196417993706 1.4270075084241947 188 170 152
-2.6124255668116696 -0.4833597514507771 1.4631568840741906 178 162 148
-2.7272999065305696 -0.7176845581240897 0.969019055086992 133 103 100
-2.6873257485557462 -0.5659879977605836 1.1124443725394382 181 163 148
-2.616338332655501 -0.2953584833429075 1.3760303347862972 178 156 140
-2.595351057142861 -0.2416099831913708 1.4249922895150788 158 119 112
-2.0582366497126987 0.017428506812482005 1.850347045775524 131 101 99
-2.2303451573053956 0.09397920575844751 1.8651862792908689 198 172 159
-2.600504581317638 -0.08894346310039263 1.3816865011477535 178 157 138
-2.799003025735421 -0.47912454840212787 0.5138295517062716 169 153 133
-2.4718397513783334 0.2556372072385793 1.861431437549171 105 65 63
-2.372730667339336 0.24923933278550855 1.8457130153674555 190 159 144
-2.772923860307293 -0.333068731649532 0.5734201106346634 124 101 89
-2.6242240265476844 -0.010987846800982375 1.2369768712132012 177 156 137
-2.5774747995930647 0.10920521958394015 1.4063370450565529 172 151 134
-2.579208016277569 0.13166798119175735 1.407670479909289 166 148 132
-2.8326904448673615 -0.35659179993948 0.30403233370398247 35 26 19
-2.832875834716724 -0.3296407927808302 0.2991249422645645 33 33 28
-2.3858821688199425 0.3388059411590516 1.8229259933429034 183 138 121
-2.3547681791986137 0.5269177326573906 1.756704525843557 174 146 129
-2.158176400462766 0.7377223124069725 2.175317348133203 43 68 36
-2.828602598854736 0.6395093169247456 1.5881630790838974 12 17 11
-2.8285699533124116 0.6395066450297726 1.5881630988506579 12 17 11
-2.409937450429565 -0.4277247916533746 2.0658743760748077 200 180 167
-1.8980339683359737 -0.6845355020520294 2.0288920780890605 178 180 177
-1.8936763221453912 -0.6887972116953314 2.0263309856687712 178 180 177
-2.50975657657931 -0.40300779927898067 1.9298350167953524 176 156 147
-1.1222989292787025 -0.5348276278477824 2.0677136404693246 130 132 130
-2.4954170089647683 -0.1247850860312528 1.9122769009001417 149 127 122
-2.5352536580569875 -0.13605539126798888 1.6342532142805157 101 116 129
-2.2674978886182524 0.015284197454148458 1.895787285438282 194 172 158
-2.1804637863808165 0.06678718604086717 1.8608346426459912 158 121 116
-2.3464774545519194 0.1595482037499823 1.8685202761665505 151 122 103
-2.370206992402454 0.1794363271257146 1.8726925468109887 192 165 153
-0.6300485500302286 0.029904934499988062 1.5592560253201253 61 53 34
-2.6069867285984794 -0.6985064857404191 1.5353818603441647 140 122 118
-2.5005891871212493 0.4904693819825899 1.6614030782709923 154 136 122
-2.49533439253361 -0.004944948185882342 1.868872889511588 170 142 128
-2.749994072555055 -0.7172715775577758 0.8478954034222969 132 120 104
-2.8252853561175133 -1.2348987900073927 0.5591498134425427 0 0 0
-2.572759113772028 0.2871524325378653 1.3673314282865363 115 105 96
-2.6707085751329402 -0.23875653180891557 1.0686239393592563 165 151 138
-2.8241267207201797 -0.5715765786785326 0.3850947046767974 131 118 104
1.919432205963204 -1.6035163488672182 1.0935325795575677 169 181 177
1.3017410567886616 -1.658462454234522 0.2849268744008932 215 220 214
1.2620392298241359 -1.6033312764088592 0.09772343622618421 214 215 206
1.2460420684006992 -1.577872070203609 0.01492701276218373 213 214 208
1.2117835037885885 -1.5116547524267672 -0.2022929605963809 212 214 203
0.380696032540999 -1.5897735864312177 0.24820931949550315 86 76 67
1.225696269292997 -1.2967926794303513 0.14083362454591847 46 42 33
0.7863303946765513 -1.320692559867985 -0.22195455840440753 164 147 137
1.142681258749303 -1.1248642693320396 -0.2508879319873378 226 208 197
1.1425834265873096 -1.1248689115037358 -0.25092312339352935 226 208 197
0.3794277948525368 -1.1946405459767222 -0.1871160819193191 181 196 196
1.1414921382364192 -1.0619357230356292 -0.3115157883557763 193 160 149
1.1482868502662638 -0.8822962384737216 -0.26649033762185975 213 184 168
1.155320905377913 -0.8518925914615414 -0.26201518498838416 207 190 172
1.1699058345528162 -0.8026493396521122 -0.20632974759263017 152 130 108
0.8171130889243332 -0.832326294371096 -0.35492699848450465 69 63 51
-2.8134300784478423 -1.1224602524578755 0.47875535255602913 127 117 126
-5.48017790990927 -0.7608121762549448 1.3777547608104797 122 131 133
-5.48017790990927 -0.7608121762549448 1.3777547608104797 122 131 133
1.140076176220717 -0.5043854217056394 -0.42080114409137487 222 200 179
1.1648024763347964 -0.47951746567352616 -0.2939210953094669 180 152 128
0.4377524130020526 -0.48718460385052026 -0.40276010344370794 153 136 120
-1.4755426292560592 -0.5087306024893448 -0.1455638695865794 164 136 125
1.1705467824640248 -0.4133300864268612 -0.23847623471016308 156 131 111
-0.23053589694352183 -0.16896401009916437 0.9525235736801777 48 57 58
1.1432489539605148 -0.4192777218522808 -0.4271249278480345 209 187 164
-0.5059968558193988 -0.08822592667520956 0.8689101486057678 28 31 30
0.6422536114386207 -0.3217374398696944 -0.4770560043383457 25 27 24
0.881056716729738 -0.2360804068053802 -0.952454293778381 83 108 49
0.8338952944175745 -0.1289937179531331 -0.9800181955218146 60 48 41
1.3792755272022863 -1.6299549202761792 0.2602432873157043 230 231 226
1.9325285825675993 -1.5646223333593456 1.132972063755206 100 111 87
1.2611581825903355 -1.362090158241039 0.07296571029762192 198 195 177
1.1640500811617922 -1.3142618557424424 -0.07911243545344618 186 157 128
1.013253119398962 -1.3161416514664717 -0.275654352822202 147 132 121
1.1949457962169383 -1.2644998700772956 0.07259113111579295 177 173 164
1.1577998526758135 -1.1446885609769846 -0.17922865907573335 214 196 172
0.7179540301648902 -1.2066216141077524 -0.24477384415251835 174 156 147
0.7190858139892008 -1.2056005722372825 -0.24672244300548937 174 156 147
0.013825301865936682 -1.3322291435024676 -0.06461373174474327 82 72 62
0.35833506806444876 -1.2543154485664507 -0.14232904652630582 171 192 193
1.1437604487263588 -1.0165196697843344 -0.2797605153537669 226 207 183
1.1174095828749904 -1.0198170046885824 -0.38572706362239817 107 69 57
-1.4451956275002964 -1.3744959727986201 0.035444752085854056 158 160 157
1.1234005468419346 -0.9273234980913604 -0.3959666966069862 163 125 119
0.66202532601489 -0.9830384450378239 -0.3018029531219216 155 148 135
0.169561697470181 -1.0396091852840512 -0.1830291875940284 171 149 135
1.1565139380228031 -0.871611373682104 -0.24859258940503215 204 182 161
1.1489006738618541 -0.7669949400714328 -0.30394706265033683 195 171 159
1.1754352452225367 -0.7184171978729266 -0.11840554010484781 14 16 11
0.8580588036486296 -0.7715997580665268 -0.37534550235885256 120 120 118
1.1783012070853007 -0.7045440969964468 -0.07171658643030802 15 14 12
1.1238107381460238 -0.6973703294578338 0.03367160833022421 15 14 12
0.9728446744138031 -0.7596034091756846 -0.4364844042752535 108 91 89
-0.34183947308364204 -0.8582201356101031 -0.2763283002314125 146 125 117
1.1425635615468415 -0.593846166893625 -0.38454209192442934 196 170 160
1.1817479315731771 -0.4008743553146548 -0.16922678827387022 44 45 34
-3.188267326595541 0.5501223693288332 5.052228760489232 32 36 27
-5.311583787868766 -0.22540115482083536 1.476691269662135 32 26 26
-5.452559907811798 -0.27346986480245444 1.2345430230695438 23 23 25
-5.452559907811798 -0.27346986480245444 1.2345430230695438 23 23 25
0.48760443738478304 -0.42342771570973814 -0.4318602185961851 138 121 103
1.1731627078283118 -0.3306143018817008 -0.2366669424823786 23 24 19
0.5068338567068904 -0.3621612974530321 -0.46559140725327025 142 134 118
-2.906918053256532 -0.27814982489838863 0.0005921077122564775 48 79 41
-2.906918053256532 -0.27814982489838863 0.0005921077122564775 48 79 41
1.2140803623352894 -0.36949626024322313 -0.8134484804325783 36 63 12
1.2162324049226714 -0.3559350415057981 -0.8300004608270755 21 21 13
-2.544598908365958 -0.09838355457861149 -0.2455771339978265 21 30 25
1.301592426976896 -0.29028176548114076 -0.8386084852800517 16 24 14
0.884873461711907 -0.2427997456128514 -0.8953906620548638 19 21 14
1.3197786707593693 -0.2239490728854377 -0.8194352213751618 24 36 10
1.131266106095824 -0.1523928159009055 -1.0044117403612758 120 102 84
0.6935610486818121 -1.3372187733161869 -0.1984290844674672 132 118 104
0.6396323898455936 -1.2782409495185953 -0.18414744337623104 165 176 180
0.4842722272498777 -1.2989354999345109 -0.16921236222192212 165 152 139
0.48366680026737646 -1.3005097537567312 -0.16816662278830904 165 152 139
0.3956957518312751 -1.2561893320643949 -0.15449063627889095 155 132 123
0.5353582827640809 -1.141700167108145 -0.19495317755184602 136 131 110
0.9723597756020711 -1.0390998006314687 -0.3569106281425013 156 142 133
-0.03172354589179729 -1.1772794378041003 -0.08360044715192956 167 160 141
1.1429083964798974 -0.9377111623898471 -0.3453256577790345 224 193 180
-1.6111414478115322 -1.2002501629847757 0.12340337583719713 149 146 131
0.6943366618740155 -0.9346246629543109 -0.32733178529869067 150 127 119
0.22227944013114598 -0.9747846829542295 -0.21265244017729765 159 138 117
0.6542075459896391 -0.8401017556800854 -0.3415500546211681 182 200 202
1.1805239287240648 -0.7270136325820415 -0.0667034779651145 15 15 15
-0.9485417834961221 -0.9207963454312789 -0.11901440761393112 149 137 121
1.1456748633221865 -0.7307658789221873 -0.33793789260639984 206 179 161
-1.2897501676860248 -0.8973382118827969 -0.06963178636096606 149 139 125
-1.5833871066504084 -0.8341264795068509 -0.0017894305243927355 140 111 103
-0.17831151956077182 -0.7436401623369345 -0.2074823397419825 126 93 85
1.1527203305661435 -0.5551391753428503 -0.3364625007188113 195 168 150
-0.7956302706149381 -0.5513270642495852 -0.3088990375542364 44 41 36
0.875799000117305 -0.4930476176764321 -0.4716011909163109 53 58 51
1.1468808550367613 -0.42610117481480325 -0.3890422904881514 194 166 145
1.224162188995141 -0.3191804198871635 -0.017333340859649087 70 52 36
1.1844629043329744 -0.3325457569772633 -0.13382208137182605 44 52 45
0.9323969510749268 -0.418227180700683 -0.5205805886175899 30 34 26
0.8872455370216307 -0.3841600314850445 -0.5123990975786695 29 33 26
-1.1575616175111312 -0.2595471724777121 -0.27984237127791195 152 133 125
0.7774042351766031 -0.35077010634903955 -0.8290295616117516 29 53 39
0.8148687824669583 -0.30751630493830123 -0.8673119408111473 19 21 20
1.3159242352440583 -0.26643510528508496 -0.830909716563738 18 21 8
1.2104341158682976 -0.2518966656615001 -0.909892209874757 14 25 11
0.9598390508817539 -0.1423996696713386 -0.9863893705104675 123 108 90
1.1273192258745606 -1.3081024734499924 -0.2981017558691672 204 187 174
1.1756543618442592 -1.1965825761951956 -0.07828977578519111 221 200 179
1.1416677795737746 -0.9991004781095283 -0.22458968820138872 212 192 178
-0.7721737584046684 -1.2730080537645259 -0.08056863989167534 141 128 121
-1.2601466228262275 -1.213123073545624 0.04265678159291135 155 171 173
1.122732273715462 -0.8723133717812496 -0.41368339290400313 191 161 160
1.1648417750385678 -0.6003045902457592 -0.2759778345897088 144 117 100
1.1980471595816502 -0.4889887307238354 -0.1448025721385027 90 71 55
1.194308704485086 -0.4884797771748698 -0.13474125536612724 90 71 55
-2.6500987101632267 -0.4672938089479218 0.2514649350971437 160 147 136
1.0768010779339643 -0.4085566981868414 -0.5616405850635195 88 60 52
-1.2220798354001516 -0.3575826072484419 -0.24360408377474507 52 62 61
1.1148055389595541 -0.3640004210948399 -0.5600325199967843 176 162 153
-2.1858904808069854 -1.1566554111333531 0.388146315749232 117 111 108
0.8340161204814011 -0.6608316491487046 -0.430249816903845 166 151 135
-0.5042154659194816 -0.44441210084250987 -0.357109820513457 45 51 51
-0.5069547611663013 -1.0193016128549404 -0.20841395579832955 163 141 138
-1.97604663854456 -0.4042539568440459 -0.059080444541904246 159 162 152
2.076901762598409 -1.4619350383887557 0.9948182248933524 255 255 255
1.220233294389154 -0.7044071702126337 -0.14765413513799805 18 16 19
1.6432810044187391 -1.5469201782669821 0.6903316042422815 255 255 255
1.1274404036046732 -0.4681950996795885 -0.3338114755804468 158 126 111
0.8001051386003653 -1.0280528518496246 -0.32016245364240115 180 167 162
-0.8280307738863949 -0.5766209286919938 -0.2731595232035567 85 84 81
-0.9592838347904936 -0.3438612726724057 -0.2768347138110135 44 34 28
0.6335307473064784 -0.21952737416598034 -0.9585174509178315 13 22 14
0.9366869364076297 -0.4691156616126895 -0.5122368070975347 28 32 29
0.9662652939200003 -0.6961680751582965 -0.4516882680816212 107 97 91
-1.4772969924921031 -1.1833413045282806 0.0634783783300715 182 169 158
-0.4475993520498848 -0.9476288854865444 -0.2422998475535531 145 136 128
1.2624497992124213 -1.5708635900306955 -0.004461329451016706 213 214 208
-18.179934469519573 4.485941947951594 25.319397510755298 27 32 29
-5.332481560839556 -0.2042477428268419 1.5648405413393007 34 25 28
1.2012625326434794 -0.4517422283083493 -0.12933972108841205 110 95 78
0.3208550324356959 -1.9745433248706006 0.5100686990357383 253 255 252
1.2243483952546421 -1.5363436349429715 -0.08250449842889399 150 149 153
